0.034999758,0.024325967,0.00206995
0.034347832,0.02188456,0.0032906532
0.034272134,0.02188456,0.0045113564
0.034713805,0.023105264,0.0032906532
0.034981206,0.024325967,0.0032906532
0.034659714,0.023105264,0.0045113564
0.034936205,0.024325967,0.0045113564
0.035182,0.02554667,0.000849247
0.0352913,0.026767373,0.000849247
0.035190716,0.02554667,0.00206995
0.035303667,0.026767373,0.00206995
0.035332948,0.027988076,0.000849247
0.035301656,0.02920878,0.000849247
0.035349414,0.027988076,0.00206995
0.03532572,0.02920878,0.00206995
0.035174847,0.02554667,0.0032906532
0.035287946,0.026767373,0.0032906532
0.03513156,0.02554667,0.0045113564
0.035242796,0.026767373,0.0045113564
0.035332054,0.027988076,0.0032906532
0.03530903,0.02920878,0.0032906532
0.035282135,0.027988076,0.0045113564
0.035255685,0.02920878,0.0045113564
0.03376609,0.020663857,0.0057320595
0.034177884,0.02188456,0.0057320595
0.034211338,0.02188456,0.005316317
0.03373137,0.020663857,0.0069527626
0.034102634,0.02188456,0.0069527626
0.034211338,0.021996692,0.0057320595
0.034211338,0.02226305,0.0069527626
0.033750445,0.020663857,0.008173466
0.034058973,0.02188456,0.008173466
0.03378889,0.020663857,0.009394169
0.034026414,0.02188456,0.009394169
0.034211338,0.022489175,0.008173466
0.034211338,0.022797182,0.009394169
0.034581482,0.023105264,0.0057320595
0.034863263,0.024325967,0.0057320595
0.034483135,0.023105264,0.0069527626
0.03476566,0.024325967,0.0069527626
0.03438218,0.023105264,0.008173466
0.03464876,0.024325967,0.008173466
0.034280106,0.023105264,0.009394169
0.03451495,0.024325967,0.009394169
0.035058096,0.02554667,0.0057320595
0.035164714,0.026767373,0.0057320595
0.034954682,0.02554667,0.0069527626
0.035052657,0.026767373,0.0069527626
0.03519757,0.027988076,0.0057320595
0.035166502,0.02920878,0.0057320595
0.035077393,0.027988076,0.0069527626
0.035042077,0.02920878,0.0069527626
0.034821466,0.02554667,0.008173466
0.034905955,0.026767373,0.008173466
0.034660757,0.02554667,0.009394169
0.034726918,0.026767373,0.009394169
0.03492093,0.027988076,0.008173466
0.034881815,0.02920878,0.008173466
0.03473109,0.027988076,0.009394169
0.034688845,0.02920878,0.009394169
0.0339341,0.03409159,0.000849247
0.034211338,0.03354159,0.000849247
0.034078494,0.03409159,0.00206995
0.034211338,0.033798337,0.00206995
0.034187347,0.03409159,0.0032906532
0.034211338,0.034031093,0.0032906532
0.034211338,0.03409159,0.0036645234
0.035186768,0.030429482,0.000849247
0.03495446,0.031650186,0.000849247
0.035222307,0.030429482,0.00206995
0.035004526,0.031650186,0.00206995
0.034551382,0.03287089,0.000849247
0.03464116,0.03287089,0.00206995
0.035210386,0.030429482,0.0032906532
0.035007134,0.031650186,0.0032906532
0.03515801,0.030429482,0.0045113564
0.03496921,0.031650186,0.0045113564
0.034683704,0.03287089,0.0032906532
0.034672678,0.03287089,0.0045113564
0.0342623,0.03409159,0.0045113564
0.032990634,0.035312295,1.2695789e-05
0.033169895,0.035312295,0.000849247
0.032345787,0.036532998,0.000849247
0.032990634,0.035573065,0.000849247
0.03339997,0.035312295,0.00206995
0.03266728,0.036532998,0.00206995
0.032990634,0.035996556,0.00206995
0.031570107,0.0377537,0.000849247
0.03176993,0.0374448,0.000849247
0.030549228,0.038974404,0.00042948127
0.03076388,0.038974404,0.000849247
0.03176993,0.0377537,0.0014237612
0.031293914,0.038974404,0.00206995
0.03176993,0.03813964,0.00206995
0.031990394,0.0377537,0.00206995
0.03359957,0.035312295,0.0032906532
0.03295867,0.036532998,0.0032906532
0.032990634,0.036474735,0.0032906532
0.03375961,0.035312295,0.0045113564
0.034211338,0.034225106,0.0045113564
0.032990634,0.036532998,0.003442198
0.0332181,0.036532998,0.0045113564
0.03173037,0.038974404,0.0032906532
0.03176993,0.038896024,0.0032906532
0.03176993,0.038974404,0.0034170896
0.0323662,0.0377537,0.0032906532
0.03266482,0.0377537,0.0045113564
0.032990634,0.037044108,0.0045113564
0.032101482,0.038974404,0.0045113564
0.034208655,0.03409159,0.008173466
0.034211338,0.034078628,0.008173466
0.034211338,0.03409159,0.008104101
0.03409183,0.03409159,0.009394169
0.034211338,0.03343475,0.009394169
0.035069793,0.030429482,0.0057320595
0.034896195,0.031650186,0.0057320595
0.034948424,0.030429482,0.0069527626
0.03479211,0.031650186,0.0069527626
0.034636542,0.03287089,0.0057320595
0.034289196,0.03409159,0.0057320595
0.03456755,0.03287089,0.0069527626
0.034273103,0.03409159,0.0069527626
0.034793973,0.030429482,0.008173466
0.034655243,0.031650186,0.008173466
0.034606367,0.030429482,0.009394169
0.03448552,0.031650186,0.009394169
0.034470692,0.03287089,0.008173466
0.03432347,0.03287089,0.009394169
0.03385982,0.035312295,0.0057320595
0.034211338,0.034336194,0.0057320595
0.033391252,0.036532998,0.0057320595
0.033898637,0.035312295,0.0069527626
0.034211338,0.034314588,0.0069527626
0.033489823,0.036532998,0.0069527626
0.032913968,0.0377537,0.0057320595
0.032990634,0.037573323,0.0057320595
0.03237559,0.038974404,0.0057320595
0.032990634,0.0377537,0.006280124
0.033072814,0.0377537,0.0069527626
0.03257005,0.038974404,0.0069527626
0.032990634,0.037965596,0.0069527626
0.033879787,0.035312295,0.008173466
0.033518285,0.036532998,0.008173466
0.033802003,0.035312295,0.009394169
0.033477977,0.036532998,0.009394169
0.03313957,0.0377537,0.008173466
0.032676518,0.038974404,0.008173466
0.032990634,0.038189188,0.008173466
0.033132643,0.0377537,0.009394169
0.032693952,0.038974404,0.009394169
0.032990634,0.038205728,0.009394169
0.033798277,0.020663857,0.010614872
0.033981115,0.02188456,0.010614872
0.03376609,0.020663857,0.011835575
0.03391145,0.02188456,0.011835575
0.034177065,0.023105264,0.010614872
0.034211338,0.023105264,0.010225728
0.034211338,0.023334965,0.010614872
0.034058303,0.023105264,0.011835575
0.03418541,0.024325967,0.011835575
0.034211338,0.024325967,0.011659667
0.033672214,0.020663857,0.013056278
0.033792317,0.02188456,0.013056278
0.033514783,0.020663857,0.014276981
0.033619165,0.02188456,0.014276981
0.033900052,0.023105264,0.013056278
0.03398484,0.024325967,0.013056278
0.033703282,0.023105264,0.014276981
0.033761844,0.024325967,0.014276981
0.03436236,0.024325967,0.010614872
0.034211338,0.024671897,0.011835575
0.034032375,0.02554667,0.013056278
0.034211338,0.02554667,0.012129575
0.03404124,0.026767373,0.013056278
0.034211338,0.026767373,0.012214661
0.033789113,0.02554667,0.014276981
0.03378509,0.026767373,0.014276981
0.03401591,0.027988076,0.013056278
0.034211338,0.027988076,0.01212801
0.03396137,0.02920878,0.013056278
0.034211338,0.02920878,0.01191172
0.033750072,0.027988076,0.014276981
0.033688977,0.02920878,0.014276981
0.034475535,0.02554667,0.010614872
0.03452106,0.026767373,0.010614872
0.03426446,0.02554667,0.011835575
0.034291506,0.026767373,0.011835575
0.034515098,0.027988076,0.010614872
0.034469426,0.02920878,0.010614872
0.034276456,0.027988076,0.011835575
0.03422892,0.02920878,0.011835575
0.03330408,0.020663857,0.0154976845
0.03340228,0.02188456,0.0154976845
0.032990634,0.0200921,0.016718388
0.033045694,0.020663857,0.016718388
0.03314978,0.02188456,0.016718388
0.033475816,0.023105264,0.0154976845
0.03352201,0.024325967,0.0154976845
0.0332257,0.023105264,0.016718388
0.033269286,0.024325967,0.016718388
0.03275363,0.020663857,0.01793909
0.032990634,0.020663857,0.016970292
0.032859728,0.02188456,0.01793909
0.032990634,0.02188456,0.017421871
0.032419696,0.020663857,0.019159794
0.032546356,0.02188456,0.019159794
0.032938704,0.023105264,0.01793909
0.032990634,0.023105264,0.017741352
0.03298773,0.024325967,0.01793909
0.032990634,0.024325967,0.017928362
0.032645673,0.023105264,0.019159794
0.032688588,0.024325967,0.019159794
0.033538103,0.02554667,0.0154976845
0.033525065,0.026767373,0.0154976845
0.03328143,0.02554667,0.016718388
0.03326288,0.026767373,0.016718388
0.03348446,0.027988076,0.0154976845
0.03341323,0.02920878,0.0154976845
0.033214003,0.027988076,0.016718388
0.0331354,0.02920878,0.016718388
0.032990634,0.024502695,0.01793909
0.03299935,0.02554667,0.01793909
0.032975435,0.026767373,0.01793909
0.032990634,0.025736809,0.01793909
0.032990634,0.026767373,0.017886117
0.0326865,0.02554667,0.019159794
0.032990634,0.02554667,0.01798059
0.03263867,0.026767373,0.019159794
0.03291054,0.027988076,0.01793909
0.032990634,0.027988076,0.01766923
0.032777995,0.02920878,0.01793909
0.032990634,0.02920878,0.017313987
0.032538906,0.027988076,0.019159794
0.032357037,0.02920878,0.019159794
0.029252678,0.038974404,0.019159794
0.029328525,0.038229346,0.019159794
0.029328525,0.038974404,0.018290386
0.034151807,0.030429482,0.011835575
0.034211338,0.02963674,0.011835575
0.034211338,0.030429482,0.0115196705
0.03404832,0.031650186,0.011835575
0.034211338,0.031650186,0.01098837
0.0341267,0.03287089,0.010614872
0.034211338,0.03231649,0.010614872
0.034211338,0.03287089,0.010170892
0.033914506,0.03409159,0.010614872
0.033887014,0.03287089,0.011835575
0.033667743,0.03409159,0.011835575
0.03387621,0.030429482,0.013056278
0.033757076,0.031650186,0.013056278
0.033592865,0.030429482,0.014276981
0.033451155,0.031650186,0.014276981
0.033544958,0.03287089,0.013056278
0.033287615,0.03409159,0.013056278
0.033202007,0.03287089,0.014276981
0.032876045,0.03409159,0.014276981
0.032990634,0.03408891,0.014276981
0.032990634,0.03409159,0.013952881
0.034399614,0.030429482,0.010614872
0.03428577,0.031650186,0.010614872
0.033652246,0.035312295,0.010614872
0.0333575,0.036532998,0.010614872
0.03339915,0.035312295,0.011835575
0.033100978,0.036532998,0.011835575
0.033043608,0.0377537,0.010614872
0.032611847,0.038974404,0.010614872
0.032990634,0.03794302,0.010614872
0.03271228,0.0377537,0.011835575
0.032990634,0.037038893,0.011835575
0.032990634,0.0377537,0.011355534
0.032256603,0.038974404,0.011835575
0.032977,0.035312295,0.013056278
0.032990634,0.034575805,0.013056278
0.032990634,0.035312295,0.01303333
0.032524005,0.036532998,0.013056278
0.032990634,0.036532998,0.012204006
0.032432884,0.035312295,0.014276981
0.032018334,0.036532998,0.014276981
0.031530395,0.038974404,0.013056278
0.03176993,0.038297817,0.013056278
0.03176993,0.038974404,0.012369111
0.0314693,0.0377537,0.014276981
0.03176993,0.037241697,0.014276981
0.03176993,0.0377537,0.014040872
0.03088577,0.038974404,0.014276981
0.032188132,0.0377537,0.013056278
0.03330177,0.030429482,0.0154976845
0.033129588,0.031650186,0.0154976845
0.033000246,0.030429482,0.016718388
0.0327283,0.031650186,0.016718388
0.032990634,0.030466735,0.016718388
0.032990634,0.031650186,0.01602228
0.032774642,0.03287089,0.0154976845
0.032990634,0.03228222,0.0154976845
0.032990634,0.03287089,0.015027031
0.032362625,0.03409159,0.0154976845
0.03231792,0.03287089,0.016718388
0.031936526,0.03409159,0.016718388
0.03252043,0.030429482,0.01793909
0.032990634,0.030429482,0.016756684
0.032237306,0.031650186,0.01793909
0.03208904,0.030429482,0.019159794
0.031809047,0.031650186,0.019159794
0.031430855,0.03409159,0.01793909
0.03176993,0.033047915,0.01793909
0.03176993,0.03409159,0.01707229
0.031400383,0.03287089,0.019159794
0.03176993,0.031829745,0.019159794
0.03176993,0.03287089,0.018453106
0.031034261,0.03409159,0.019159794
0.03194271,0.03287089,0.01793909
0.031392932,0.036532998,0.0154976845
0.03176993,0.035534322,0.0154976845
0.03176993,0.036532998,0.014979497
0.031405747,0.035312295,0.016718388
0.03176993,0.03466849,0.016718388
0.03176993,0.035312295,0.016052976
0.030912444,0.036532998,0.016718388
0.03203234,0.035312295,0.0154976845
0.03086774,0.0377537,0.0154976845
0.030211419,0.038974404,0.0154976845
0.030549228,0.038593456,0.0154976845
0.030549228,0.038974404,0.015196383
0.03040409,0.0377537,0.016718388
0.030549228,0.03761415,0.016718388
0.030549228,0.0377537,0.016557902
0.029713199,0.038974404,0.016718388
0.030981734,0.035312295,0.01793909
0.030602127,0.036532998,0.01793909
0.030706286,0.035312295,0.019159794
0.03022565,0.036532998,0.019159794
0.030549228,0.035857975,0.019159794
0.030549228,0.036532998,0.018199265
0.02992867,0.0377537,0.01793909
0.030549228,0.03669855,0.01793909
0.029810354,0.038974404,0.01793909
0.030066058,0.0377537,0.019159794
0.00037311018,0.0011326075,0.024042606
0.00030694902,0.0023533106,0.024042606
0.00016233325,0.0035740137,0.024042606
0.0012523532,0.0011326075,0.024673
0.0021283925,0.0011326075,0.02526331
0.0012523532,0.0023533106,0.02475883
0.0019582212,0.0023533106,0.02526331
0.0024730563,0.0011326075,0.02548273
0.0024730563,0.0023533106,0.025610805
0.0036937594,0.0011326075,0.026221603
0.004128948,0.0011326075,0.026484013
0.0036937594,0.0023533106,0.026392594
0.0038308501,0.0023533106,0.026484013
0.0012523532,0.0035740137,0.024924159
0.0016965568,0.0035740137,0.02526331
0.0012523532,0.004794717,0.025170699
0.0013638884,0.004794717,0.02526331
0.0024730563,0.0035740137,0.025828063
0.0024730563,0.004794717,0.026142478
0.003417194,0.0035740137,0.026484013
0.0036937594,0.00282076,0.026484013
0.002924785,0.004794717,0.026484013
0.0049144626,0.0011326075,0.026906982
0.0049144626,0.0023533106,0.027124763
0.0036937594,0.0035740137,0.026662156
0.0049144626,0.0035740137,0.027432248
0.0036937594,0.004794717,0.027037293
0.004653394,0.004794717,0.027704716
0.0049144626,0.0043697357,0.027704716
0.0049144626,0.004794717,0.02786766
0.0061351657,0.0011326075,0.02752851
0.0064802766,0.0011326075,0.027704716
0.0059563518,0.0023533106,0.027704716
0.0061351657,0.0019299686,0.027704716
0.007355869,0.0011326075,0.028101534
0.0061351657,0.0023533106,0.027808055
0.007355869,0.0023533106,0.028448507
0.008576572,0.0011326075,0.028568015
0.009797275,0.0011326075,0.028924078
0.008506611,0.0023533106,0.028925419
0.008576572,0.0022738874,0.028925419
0.009797275,0.0011367798,0.028925419
0.005349055,0.0035740137,0.027704716
0.0061351657,0.0035740137,0.028197646
0.007355869,0.0035740137,0.028877586
0.0061351657,0.004794717,0.028673515
0.006543383,0.004794717,0.028925419
0.007355869,0.0036970228,0.028925419
0.0074531734,0.0035740137,0.028925419
0.00097452104,0.00601542,0.02526331
0.0012523532,0.005178869,0.02526331
0.0005414188,0.007236123,0.02526331
0.0012523532,0.00601542,0.025508508
0.0023905784,0.00601542,0.026484013
0.0024730563,0.0058347434,0.026484013
0.0012523532,0.007236123,0.025943995
0.0018389374,0.007236123,0.026484013
7.925928e-05,0.008456826,0.02526331
0.0012523532,0.008456826,0.026468217
0.001268521,0.008456826,0.026484013
0.00067798793,0.009677529,0.026484013
0.0012523532,0.008489609,0.026484013
0.0024730563,0.00601542,0.026551142
0.0024730563,0.007236123,0.027045488
0.0036937594,0.00601542,0.027500719
0.003953859,0.00601542,0.027704716
0.003271386,0.007236123,0.027704716
0.0036937594,0.006489724,0.027704716
0.0049144626,0.00601542,0.028398216
0.0036937594,0.007236123,0.028051242
0.0048029274,0.007236123,0.028925419
0.0049144626,0.0070834607,0.028925419
0.0024730563,0.008456826,0.02761218
0.0012523532,0.009677529,0.027074248
0.0018913895,0.009677529,0.027704716
0.0024730563,0.008640632,0.027704716
0.0024730563,0.009677529,0.028255388
0.002578184,0.008456826,0.027704716
0.0036937594,0.008456826,0.02867195
0.0039855987,0.008456826,0.028925419
0.0032111108,0.009677529,0.028925419
0.0036937594,0.008908853,0.028925419
0.0056764334,0.00601542,0.028925419
0.0061351657,0.0053922534,0.028925419
0.0098027885,0.0011326075,0.028925419
0.011017978,0.0001719296,0.028925419
0.017121494,0.0005527288,0.028925419
0.017647803,0.0011326075,0.028925419
0.018342197,0.0011326075,0.02878356
0.0195629,0.0011326075,0.028509006
0.018342197,0.0019931495,0.028925419
0.018596113,0.0023533106,0.028925419
0.0195629,0.0023533106,0.028665692
0.01951164,0.0035740137,0.028925419
0.0195629,0.0035740137,0.028906494
0.0195629,0.0036517233,0.028925419
9.8481774e-05,0.010898232,0.026484013
0.0012265742,0.010898232,0.027704716
0.0012523532,0.010852113,0.027704716
0.00057315826,0.012118936,0.027704716
0.0012523532,0.010898232,0.027731314
0.002456367,0.010898232,0.028925419
0.0024730563,0.010871187,0.028925419
0.0012523532,0.012118936,0.028424814
0.0017446876,0.012118936,0.028925419
0.0010284632,0.013339639,0.028925419
0.0012523532,0.012961671,0.028925419
0.0003207326,0.014560342,0.028925419
0.008576572,0.0023533106,0.028952241
0.009797275,0.0023533106,0.029342055
0.007355869,0.004794717,0.029387355
0.008576572,0.0035740137,0.029427662
0.009797275,0.0035740137,0.029816955
0.008576572,0.004794717,0.029943839
0.0091416985,0.004794717,0.030146122
0.009797275,0.0043411255,0.030146122
0.009797275,0.004794717,0.030359209
0.0049144626,0.007236123,0.029007673
0.0049144626,0.008456826,0.02971682
0.0036937594,0.009677529,0.029374763
0.0045183897,0.009677529,0.030146122
0.0049144626,0.0091341585,0.030146122
0.0049144626,0.009677529,0.03048572
0.0061351657,0.00601542,0.029239386
0.007355869,0.00601542,0.029975578
0.0061351657,0.007236123,0.029918209
0.0064652264,0.007236123,0.030146122
0.007355869,0.0063369125,0.030146122
0.007355869,0.007236123,0.030688077
0.007693827,0.00601542,0.030146122
0.008576572,0.005256206,0.030146122
0.008576572,0.00601542,0.030554563
0.009797275,0.00601542,0.03097187
0.008576572,0.007236123,0.031276077
0.008807465,0.007236123,0.031366825
0.009797275,0.006704077,0.031366825
0.0054475516,0.008456826,0.030146122
0.0061351657,0.007607609,0.030146122
0.0061351657,0.008456826,0.03068927
0.007096961,0.008456826,0.031366825
0.007355869,0.008229956,0.031366825
0.0059174597,0.009677529,0.031366825
0.0061351657,0.009406179,0.031366825
0.008576572,0.0073744804,0.031366825
0.009797275,0.007236123,0.031696066
0.007355869,0.008456826,0.031521127
0.0061351657,0.009677529,0.031545565
0.007355869,0.009677529,0.032409683
0.008576572,0.008456826,0.032144368
0.009797275,0.008456826,0.032546476
0.007643461,0.009677529,0.03258753
0.008576572,0.009028286,0.03258753
0.009797275,0.008507863,0.03258753
0.008576572,0.009677529,0.033037245
0.009797275,0.009677529,0.033416256
0.011017978,0.0011326075,0.02919513
0.012238681,0.0011326075,0.0293542
0.011017978,0.0023533106,0.029601112
0.012238681,0.0023533106,0.029737905
0.013459384,0.0011326075,0.029378489
0.014680088,0.0011326075,0.029309273
0.013459384,0.0023533106,0.029728591
0.014680088,0.0023533106,0.029625773
0.011017978,0.0035740137,0.030075341
0.011533335,0.0035740137,0.030146122
0.012238681,0.0034589767,0.030146122
0.011017978,0.0037426949,0.030146122
0.012238681,0.0035740137,0.030194253
0.011017978,0.004794717,0.030621171
0.012238681,0.004794717,0.030728608
0.013459384,0.0035156757,0.030146122
0.013736397,0.0035740137,0.030146122
0.014680088,0.0035740137,0.0300439
0.014680088,0.003828749,0.030146122
0.013459384,0.0035740137,0.03017056
0.013459384,0.004794717,0.030703798
0.014680088,0.004794717,0.03056492
0.01590079,0.0011326075,0.029193267
0.017121494,0.0011326075,0.02902101
0.01590079,0.0023533106,0.029480785
0.017121494,0.0023533106,0.029277906
0.018342197,0.0023533106,0.028993145
0.01590079,0.0035740137,0.02986218
0.017121494,0.0035740137,0.029620484
0.01590079,0.004323542,0.030146122
0.016725272,0.004794717,0.030146122
0.017121494,0.004794717,0.030045912
0.01590079,0.004794717,0.030344903
0.018342197,0.0035740137,0.029299438
0.018342197,0.004794717,0.029674798
0.0195629,0.004794717,0.02923216
0.011017978,0.00601542,0.031231374
0.012238681,0.00601542,0.03133121
0.011017978,0.0062607676,0.031366825
0.012238681,0.006081283,0.031366825
0.013459384,0.00601542,0.031294703
0.014680088,0.00601542,0.031144947
0.013459384,0.00615184,0.031366825
0.014680088,0.006450385,0.031366825
0.011017978,0.007236123,0.031957954
0.012238681,0.007236123,0.032052353
0.013459384,0.007236123,0.031991333
0.014680088,0.007236123,0.031802386
0.009966478,0.008456826,0.03258753
0.011017978,0.00819464,0.03258753
0.012238681,0.008089513,0.03258753
0.011017978,0.008456826,0.03276798
0.012238681,0.008456826,0.032832503
0.011017978,0.009677529,0.033598796
0.012238681,0.009677529,0.033632547
0.013459384,0.008202761,0.03258753
0.01446797,0.008456826,0.03258753
0.014680088,0.008456826,0.03254707
0.014680088,0.008514494,0.03258753
0.013459384,0.008456826,0.032752335
0.013459384,0.009677529,0.033549547
0.014680088,0.009677529,0.033345252
0.017121494,0.005071506,0.030146122
0.01590079,0.00601542,0.030901983
0.017121494,0.00601542,0.030552477
0.01590079,0.0069692433,0.031366825
0.016358554,0.007236123,0.031366825
0.017121494,0.007236123,0.03112021
0.018268287,0.00601542,0.030146122
0.018342197,0.00601542,0.030118108
0.0195629,0.00601542,0.029636651
0.018342197,0.0060882866,0.030146122
0.0194422,0.007236123,0.030146122
0.0195629,0.007236123,0.030089945
0.018342197,0.007236123,0.030639648
0.017121494,0.0077266693,0.031366825
0.0195629,0.0073833466,0.030146122
0.018018246,0.008456826,0.031366825
0.018342197,0.008456826,0.031216249
0.0195629,0.008456826,0.030603588
0.018342197,0.008750081,0.031366825
0.019242227,0.009677529,0.031366825
0.0195629,0.009677529,0.031186149
0.01590079,0.007236123,0.031505257
0.01590079,0.008456826,0.032206282
0.017121494,0.008456826,0.031753212
0.01590079,0.009045944,0.03258753
0.016840234,0.009677529,0.03258753
0.017121494,0.009677529,0.0324561
0.01590079,0.009677529,0.032977194
0.018342197,0.009677529,0.031848356
0.0024730563,0.010898232,0.028941661
0.0024730563,0.012118936,0.029668987
0.0036937594,0.010898232,0.030123845
0.0037158132,0.010898232,0.030146122
0.002956003,0.012118936,0.030146122
0.0036937594,0.010933623,0.030146122
0.0049144626,0.010898232,0.03129202
0.0036937594,0.012118936,0.03086622
0.0041724592,0.012118936,0.031366825
0.0049144626,0.011005968,0.031366825
0.0012523532,0.013339639,0.029156685
0.0022120625,0.013339639,0.030146122
0.0024730563,0.012908399,0.030146122
0.0012523532,0.014560342,0.029899433
0.001499489,0.014560342,0.030146122
0.0024730563,0.013339639,0.030413523
0.0024730563,0.014560342,0.03113459
0.0034342557,0.013339639,0.031366825
0.0036937594,0.012925014,0.031366825
0.00271222,0.014560342,0.031366825
0.0049144626,0.012118936,0.03207977
0.0036937594,0.013339639,0.031622157
0.0046320856,0.013339639,0.03258753
0.0049144626,0.012940735,0.03258753
0.0036937594,0.014560342,0.032348365
0.0039213747,0.014560342,0.03258753
0.0049144626,0.013339639,0.032834664
0.0049144626,0.014560342,0.03354694
0.0049894154,0.010898232,0.031366825
0.0061351657,0.010898232,0.032405585
0.0063509345,0.010898232,0.03258753
0.007355869,0.00991267,0.03258753
0.0054494143,0.012118936,0.03258753
0.0061351657,0.011160418,0.03258753
0.007355869,0.010898232,0.033298537
0.0061351657,0.012118936,0.033222318
0.006832987,0.012118936,0.03380823
0.007355869,0.011599034,0.03380823
0.008336589,0.010898232,0.03380823
0.008576572,0.01075533,0.03380823
0.009797275,0.010258079,0.03380823
0.005920887,0.013339639,0.03380823
0.0061351657,0.013034686,0.03380823
0.005181864,0.014560342,0.03380823
0.0008275956,0.015781045,0.030146122
0.0012523532,0.015025184,0.030146122
0.0002079308,0.017001748,0.030146122
0.0012523532,0.015781045,0.030569538
0.0020578355,0.015781045,0.031366825
0.0024730563,0.014992848,0.031366825
0.0012523532,0.017001748,0.031172365
0.0014564246,0.017001748,0.031366825
0.0009108931,0.018222451,0.031366825
0.0012523532,0.017433286,0.031366825
0.00043554604,0.019443154,0.031366825
0.0024730563,0.015781045,0.031793743
0.0024730563,0.017001748,0.03240469
0.0032807738,0.015781045,0.03258753
0.0036937594,0.015012518,0.03258753
0.0026647598,0.017001748,0.03258753
0.0036937594,0.015781045,0.032997012
0.004488662,0.015781045,0.03380823
0.0049144626,0.015041798,0.03380823
0.0036937594,0.017001748,0.03360215
0.00389418,0.017001748,0.03380823
0.0012523532,0.018222451,0.031704485
0.0021386743,0.018222451,0.03258753
0.0024730563,0.017408252,0.03258753
0.0012523532,0.019443154,0.03221202
0.0016383678,0.019443154,0.03258753
0.0024730563,0.018222451,0.032956555
0.0024730563,0.019443154,0.033476233
0.0033464879,0.018222451,0.03380823
0.0036937594,0.01744841,0.03380823
0.0028318763,0.019443154,0.03380823
0.007355869,0.012118936,0.03415647
0.008576572,0.010898232,0.03391105
0.009797275,0.010898232,0.03427732
0.008576572,0.012118936,0.034762204
0.009468108,0.012118936,0.035028934
0.009797275,0.011996597,0.035028934
0.009797275,0.012118936,0.03511119
0.0061351657,0.013339639,0.034001574
0.007355869,0.013339639,0.03493364
0.0061351657,0.014560342,0.034712434
0.0065160394,0.014560342,0.035028934
0.007355869,0.013503626,0.035028934
0.007355869,0.014560342,0.035633177
0.007513523,0.013339639,0.035028934
0.008576572,0.012536466,0.035028934
0.008576572,0.013339639,0.03555122
0.009797275,0.013339639,0.035862282
0.008576572,0.014560342,0.036194205
0.008768126,0.014560342,0.036249638
0.009797275,0.014086187,0.036249638
0.009797275,0.014560342,0.036507577
0.0049144626,0.015781045,0.03419037
0.0049144626,0.017001748,0.03477308
0.0036937594,0.018222451,0.03416139
0.004591331,0.018222451,0.035028934
0.0049144626,0.017598838,0.035028934
0.0036937594,0.019443154,0.034688964
0.004047364,0.019443154,0.035028934
0.0049144626,0.018222451,0.035296932
0.0049144626,0.019443154,0.035806403
0.0058396757,0.015781045,0.035028934
0.0061351657,0.015219122,0.035028934
0.005204886,0.017001748,0.035028934
0.0061351657,0.015781045,0.0352979
0.007355869,0.015781045,0.036178187
0.0061351657,0.017001748,0.035829797
0.006698802,0.017001748,0.036249638
0.007355869,0.015949354,0.036249638
0.007480368,0.015781045,0.036249638
0.008576572,0.014681041,0.036249638
0.0060204268,0.018222451,0.036249638
0.0061351657,0.017999604,0.036249638
0.005400166,0.019443154,0.036249638
0.007355869,0.017001748,0.03669928
0.008576572,0.015781045,0.03677751
0.009797275,0.015781045,0.037120387
0.008576572,0.017001748,0.03732319
0.008956999,0.017001748,0.03747034
0.009797275,0.016458526,0.03747034
0.009797275,0.017001748,0.037762403
0.0061351657,0.018222451,0.036342844
0.007355869,0.018222451,0.037233114
0.0061351657,0.019443154,0.03689806
0.0068439394,0.019443154,0.03747034
0.007355869,0.018672243,0.03747034
0.007355869,0.019443154,0.037843764
0.0077391267,0.018222451,0.03747034
0.008576572,0.01733084,0.03747034
0.008576572,0.018222451,0.037935182
0.009797275,0.018222451,0.038444653
0.008576572,0.019443154,0.038599625
0.008752704,0.019443154,0.038691044
0.009797275,0.018613756,0.038691044
0.011017978,0.010002226,0.03380823
0.012238681,0.009957448,0.03380823
0.013459384,0.010094017,0.03380823
0.014680088,0.010415286,0.03380823
0.0195629,0.010060564,0.031366825
0.017121494,0.009897396,0.03258753
0.015754685,0.010898232,0.03380823
0.01590079,0.010898232,0.033753768
0.017121494,0.010898232,0.03320898
0.01590079,0.010984436,0.03380823
0.017121494,0.011901751,0.03380823
0.018257111,0.010898232,0.03258753
0.018342197,0.010898232,0.032535076
0.0195629,0.010898232,0.031807303
0.018342197,0.010989279,0.03258753
0.019387513,0.012118936,0.03258753
0.0195629,0.012118936,0.032471523
0.017366096,0.012118936,0.03380823
0.018342197,0.012118936,0.033237442
0.0195629,0.012341484,0.03258753
0.018342197,0.013146147,0.03380823
0.018528685,0.013339639,0.03380823
0.0195629,0.013339639,0.033130154
0.019513577,0.014560342,0.03380823
0.0195629,0.014560342,0.033771127
0.0195629,0.014636636,0.03380823
0.011017978,0.010898232,0.03442149
0.012238681,0.010898232,0.034428045
0.011017978,0.011838272,0.035028934
0.012238681,0.011859432,0.035028934
0.011017978,0.012118936,0.03520961
0.012238681,0.012118936,0.035193294
0.013459384,0.010898232,0.034343407
0.014680088,0.010898232,0.034136057
0.013459384,0.011998162,0.035028934
0.013978764,0.012118936,0.035028934
0.014680088,0.012118936,0.03490384
0.013459384,0.012118936,0.03510642
0.011017978,0.013339639,0.035956234
0.012238681,0.013339639,0.035947517
0.011017978,0.013869524,0.036249638
0.012238681,0.01385887,0.036249638
0.014680088,0.0123295635,0.035028934
0.013459384,0.013339639,0.035864815
0.014680088,0.013339639,0.035651132
0.013459384,0.013989702,0.036249638
0.014680088,0.014350906,0.036249638
0.011017978,0.014560342,0.036643773
0.012238681,0.014560342,0.036675513
0.013459384,0.014560342,0.036605775
0.014680088,0.014560342,0.036378086
0.01590079,0.012118936,0.03452736
0.017121494,0.012118936,0.03393601
0.01590079,0.012999743,0.035028934
0.016363174,0.013339639,0.035028934
0.017121494,0.013339639,0.034638375
0.017121494,0.014023602,0.035028934
0.01590079,0.013339639,0.035241574
0.015116245,0.014560342,0.036249638
0.01590079,0.014560342,0.035962492
0.017121494,0.014560342,0.035332248
0.018342197,0.013339639,0.033914924
0.017639607,0.014560342,0.035028934
0.018342197,0.014560342,0.034586966
0.011017978,0.015781045,0.03731507
0.012238681,0.015781045,0.03741595
0.011017978,0.016048893,0.03747034
0.012238681,0.015865609,0.03747034
0.011017978,0.017001748,0.038049027
0.012238681,0.017001748,0.038229033
0.013459384,0.015781045,0.03739956
0.014680088,0.015781045,0.03718461
0.013459384,0.015883714,0.03747034
0.014680088,0.016191348,0.03747034
0.013459384,0.017001748,0.038261965
0.014680088,0.017001748,0.038051188
0.010600373,0.018222451,0.038691044
0.011017978,0.01805608,0.038691044
0.012238681,0.017720431,0.038691044
0.013459384,0.017650098,0.038691044
0.014680088,0.017972112,0.038691044
0.01590079,0.015054017,0.036249638
0.01677318,0.015781045,0.036249638
0.017121494,0.015781045,0.03604102
0.017121494,0.016135395,0.036249638
0.018342197,0.015401438,0.035028934
0.018676132,0.015781045,0.035028934
0.0195629,0.015781045,0.034403384
0.019535482,0.017001748,0.035028934
0.0195629,0.017001748,0.03500651
0.018342197,0.015781045,0.035240754
0.017889798,0.017001748,0.036249638
0.018342197,0.017001748,0.03590505
0.0195629,0.017048985,0.035028934
0.018342197,0.017635047,0.036249638
0.018758759,0.018222451,0.036249638
0.0195629,0.018222451,0.035580948
0.019426182,0.019443154,0.036249638
0.0195629,0.019443154,0.036120668
0.01590079,0.015781045,0.036723644
0.01590079,0.016918227,0.03747034
0.016001448,0.017001748,0.03747034
0.017121494,0.017001748,0.03678198
0.01590079,0.017001748,0.03752823
0.017121494,0.018171117,0.03747034
0.015162662,0.018222451,0.038691044
0.01590079,0.018222451,0.03833215
0.017121494,0.018222451,0.03750238
0.01590079,0.018803596,0.038691044
0.01648499,0.019443154,0.038691044
0.017121494,0.019443154,0.03821048
0.017164186,0.018222451,0.03747034
0.018342197,0.018222451,0.03655854
0.0180175,0.019443154,0.03747034
0.018342197,0.019443154,0.037179172
0.029328525,0.0010636896,0.024042606
0.029219076,0.004794717,0.024042606
0.029328525,0.0045062304,0.024042606
0.029328525,0.004794717,0.023879215
0.029086158,0.00601542,0.024042606
0.029328525,0.00601542,0.023564056
0.029092416,0.007236123,0.024042606
0.029328525,0.007236123,0.023526728
0.02913794,0.008456826,0.024042606
0.029328525,0.008456826,0.023590505
0.029226378,0.009677529,0.024042606
0.029328525,0.009677529,0.0237948
0.020783603,0.0011326075,0.028214708
0.022004306,0.0011326075,0.027880624
0.020783603,0.0023533106,0.028324157
0.022004306,0.0023533106,0.027942464
0.022569433,0.0011326075,0.027704716
0.02322501,0.0011326075,0.027488202
0.024445713,0.0011326075,0.027017325
0.022673145,0.0023533106,0.027704716
0.02322501,0.0023533106,0.027503476
0.024445713,0.0023533106,0.026999667
0.020783603,0.0035740137,0.028505355
0.022004306,0.0035740137,0.028066143
0.020361751,0.004794717,0.028925419
0.020783603,0.004794717,0.028753161
0.022004306,0.004794717,0.028254718
0.02287893,0.0035740137,0.027704716
0.02322501,0.0035740137,0.027563974
0.024445713,0.0035740137,0.027027532
0.023161232,0.004794717,0.027704716
0.02322501,0.004794717,0.027676031
0.024445713,0.004794717,0.02711165
0.025538191,0.0011326075,0.026484013
0.025666416,0.0011326075,0.026423141
0.026887119,0.0011326075,0.025977075
0.02545169,0.0023533106,0.026484013
0.025666416,0.0023533106,0.026381046
0.026887119,0.0023533106,0.025953755
0.028107822,0.0011262745,0.02526331
0.028125852,0.0011326075,0.02526331
0.029328525,0.0011326075,0.024223506
0.02814649,0.0023533106,0.02526331
0.029328525,0.0023533106,0.02426523
0.028107822,0.0011326075,0.025275901
0.028107822,0.0023533106,0.025277987
0.025445357,0.0035740137,0.026484013
0.025666416,0.0035740137,0.026375234
0.026887119,0.0035740137,0.025956884
0.025530666,0.004794717,0.026484013
0.025666416,0.004794717,0.026414722
0.026887119,0.004794717,0.025997043
0.028147534,0.0035740137,0.02526331
0.029328525,0.0035740137,0.024133056
0.02820915,0.004794717,0.02526331
0.028107822,0.0035740137,0.02527754
0.028107822,0.004794717,0.025302052
0.020783603,0.0055134743,0.028925419
0.02110286,0.00601542,0.028925419
0.022004306,0.00601542,0.028511614
0.021829367,0.007236123,0.028925419
0.022004306,0.007236123,0.028826997
0.02322501,0.0051089823,0.027704716
0.02354382,0.00601542,0.027704716
0.024445713,0.00601542,0.027259842
0.024047256,0.007236123,0.027704716
0.024445713,0.007236123,0.027467415
0.02322501,0.00601542,0.027867436
0.02322501,0.007236123,0.028140575
0.022004306,0.007592857,0.028925419
0.024445713,0.0083961785,0.027704716
0.022509903,0.008456826,0.028925419
0.02322501,0.008456826,0.02852182
0.024445713,0.008456826,0.027726173
0.02319476,0.009677529,0.028925419
0.02322501,0.009677529,0.028904408
0.024445713,0.009677529,0.028154135
0.025666416,0.0057016015,0.026484013
0.025735706,0.00601542,0.026484013
0.026887119,0.00601542,0.026083842
0.026294872,0.007236123,0.026484013
0.026887119,0.007236123,0.026217878
0.028320462,0.00601542,0.02526331
0.028461576,0.007236123,0.02526331
0.028107822,0.00601542,0.025360987
0.028107822,0.007236123,0.025470436
0.026715755,0.008456826,0.026484013
0.026887119,0.008456826,0.026391476
0.026887119,0.008964136,0.026484013
0.028645381,0.008456826,0.02526331
0.028836265,0.009677529,0.02526331
0.028107822,0.008456826,0.02565983
0.027232155,0.009677529,0.026484013
0.028107822,0.009677529,0.025925145
0.025666416,0.00601542,0.026510164
0.025666416,0.007236123,0.026688978
0.024481475,0.008456826,0.027704716
0.025666416,0.008456826,0.026936784
0.025045633,0.009677529,0.027704716
0.025666416,0.009677529,0.02732481
0.026887119,0.009677529,0.026642263
0.03174363,0.0023533106,0.020380497
0.03176993,0.0022650957,0.020380497
0.03176993,0.0023533106,0.020330727
0.031398445,0.0011326075,0.0216012
0.03176993,0.0011326075,0.020938993
0.03119199,0.0023533106,0.0216012
0.032076523,0.0011326075,0.020380497
0.03146334,0.0035740137,0.020380497
0.03176993,0.0035740137,0.019788995
0.031243399,0.004794717,0.020380497
0.03176993,0.004794717,0.019305155
0.030958489,0.0035740137,0.0216012
0.030618593,0.004794717,0.0216012
0.030532539,0.0011326075,0.022821903
0.030549228,0.0011326075,0.022795975
0.030438364,0.0023533106,0.022821903
0.030549228,0.0023533106,0.022626549
0.029506072,0.0011326075,0.024042606
0.029462487,0.0023533106,0.024042606
0.030343145,0.0035740137,0.022821903
0.030549228,0.0035740137,0.022386566
0.029902667,0.004794717,0.022821903
0.030549228,0.004794717,0.021723092
0.029406682,0.0035740137,0.024042606
0.031056017,0.00601542,0.020380497
0.03091997,0.007236123,0.020380497
0.030393437,0.00601542,0.0216012
0.030549228,0.005054444,0.0216012
0.030549228,0.00601542,0.02128835
0.030299708,0.007236123,0.0216012
0.030549228,0.007236123,0.021075934
0.030854553,0.008456826,0.020380497
0.030846208,0.009677529,0.020380497
0.030269533,0.008456826,0.0216012
0.030549228,0.008456826,0.02098161
0.030292034,0.009677529,0.0216012
0.030549228,0.009677529,0.02099897
0.029609263,0.00601542,0.022821903
0.029561356,0.007236123,0.022821903
0.029561952,0.008456826,0.022821903
0.029625803,0.009677529,0.022821903
0.029328525,0.010752276,0.024042606
0.02322501,0.00974898,0.028925419
0.02391158,0.010898232,0.028925419
0.024445713,0.010898232,0.028595358
0.024445713,0.011833727,0.028925419
0.029026404,0.010898232,0.02526331
0.029328525,0.010898232,0.02410549
0.029209167,0.012118936,0.02526331
0.029328525,0.012118936,0.02498503
0.027916789,0.010898232,0.026484013
0.028107822,0.010898232,0.02626057
0.028107822,0.011563569,0.026484013
0.028261751,0.012118936,0.026484013
0.029328525,0.012932166,0.02526331
0.028762802,0.013339639,0.026484013
0.029328525,0.013339639,0.025398687
0.029015526,0.014560342,0.026484013
0.029328525,0.014560342,0.02603124
0.02559571,0.010898232,0.027704716
0.025666416,0.010898232,0.02765949
0.026887119,0.010898232,0.026996166
0.025666416,0.011099696,0.027704716
0.026407227,0.012118936,0.027704716
0.026887119,0.012118936,0.02749148
0.024624527,0.012118936,0.028925419
0.025666416,0.012118936,0.02811785
0.028107822,0.012118936,0.026640102
0.026887119,0.012815118,0.027704716
0.025364518,0.013339639,0.028925419
0.025666416,0.013339639,0.028671205
0.026887119,0.013339639,0.027873918
0.025666416,0.014089465,0.028925419
0.026004747,0.014560342,0.028925419
0.026887119,0.014560342,0.0284684
0.027191252,0.013339639,0.027704716
0.028107822,0.013339639,0.027041763
0.027841017,0.014560342,0.027704716
0.028107822,0.014560342,0.02746503
0.029209092,0.015781045,0.026484013
0.029328525,0.015781045,0.026312202
0.029328525,0.016728088,0.026484013
0.026792273,0.015781045,0.028925419
0.026887119,0.015781045,0.028856054
0.026887119,0.015904129,0.028925419
0.028107822,0.015252128,0.027704716
0.028262869,0.015781045,0.027704716
0.028682858,0.017001748,0.027704716
0.029328525,0.017001748,0.026551217
0.028107822,0.015781045,0.027877942
0.02741678,0.017001748,0.028925419
0.028107822,0.017001748,0.028261945
0.028875977,0.018222451,0.027704716
0.029328525,0.018222451,0.027010098
0.029004797,0.019443154,0.027704716
0.029328525,0.019443154,0.027183622
0.027908891,0.018222451,0.028925419
0.028107822,0.018222451,0.028611824
0.028103948,0.019443154,0.028925419
0.028107822,0.019443154,0.028918117
0.03088361,0.010898232,0.020380497
0.030956924,0.012118936,0.020380497
0.030353352,0.010898232,0.0216012
0.030549228,0.010898232,0.021116614
0.030444026,0.012118936,0.0216012
0.030549228,0.012118936,0.02132687
0.031058103,0.013339639,0.020380497
0.031183422,0.014560342,0.020380497
0.030549228,0.013151437,0.0216012
0.030559212,0.013339639,0.0216012
0.03073296,0.014560342,0.0216012
0.029802233,0.010898232,0.022821903
0.029948488,0.012118936,0.022821903
0.029344916,0.010898232,0.024042606
0.02952768,0.012118936,0.024042606
0.030120298,0.013339639,0.022821903
0.030549228,0.013339639,0.02162899
0.030307382,0.014560342,0.022821903
0.030549228,0.014560342,0.022091672
0.02984403,0.013339639,0.024042606
0.030059949,0.014560342,0.024042606
0.031333327,0.015781045,0.020380497
0.031502455,0.017001748,0.020380497
0.03176993,0.017001748,0.019566074
0.030920863,0.015781045,0.0216012
0.03111808,0.017001748,0.0216012
0.031681195,0.018222451,0.020380497
0.03176993,0.018222451,0.020112574
0.03176993,0.018839434,0.020380497
0.03131008,0.018222451,0.0216012
0.03150454,0.019443154,0.0216012
0.03176993,0.019443154,0.020703033
0.03186053,0.019443154,0.020380497
0.030494168,0.015781045,0.022821903
0.030549228,0.015781045,0.022648156
0.030549228,0.016140535,0.022821903
0.030696452,0.017001748,0.022821903
0.030250832,0.015781045,0.024042606
0.030413628,0.017001748,0.024042606
0.030549228,0.017001748,0.023437247
0.030916989,0.018222451,0.022821903
0.031122178,0.019443154,0.022821903
0.030545354,0.018222451,0.024042606
0.030549228,0.018222451,0.024028078
0.030549228,0.0182641,0.024042606
0.030691087,0.019443154,0.024042606
0.029400498,0.013339639,0.02526331
0.029619545,0.014560342,0.02526331
0.029820487,0.015781045,0.02526331
0.030095637,0.017001748,0.02526331
0.029368237,0.017001748,0.026484013
0.03019622,0.018222451,0.02526331
0.030259773,0.019443154,0.02526331
0.030549228,0.019443154,0.024453282
0.02951695,0.018222451,0.026484013
0.029616863,0.019443154,0.026484013
0.020783603,0.00601542,0.029072791
0.020783603,0.007236123,0.02947475
0.02041763,0.008456826,0.030146122
0.020783603,0.008456826,0.02994354
0.022004306,0.008456826,0.029219493
0.020783603,0.008957431,0.030146122
0.021296129,0.009677529,0.030146122
0.022004306,0.009677529,0.0296935
0.020783603,0.009677529,0.030454352
0.022004306,0.0107384175,0.030146122
0.020274132,0.010898232,0.031366825
0.020783603,0.010898232,0.0310501
0.022004306,0.010898232,0.030224428
0.020783603,0.01156573,0.031366825
0.021208808,0.012118936,0.031366825
0.022004306,0.012118936,0.030839175
0.022127017,0.010898232,0.030146122
0.02322501,0.010898232,0.02939324
0.022954777,0.012118936,0.030146122
0.02322501,0.012118936,0.02996932
0.024445713,0.012118936,0.029051855
0.022004306,0.013242856,0.031366825
0.02322501,0.012562618,0.030146122
0.023728594,0.013339639,0.030146122
0.024445713,0.013339639,0.029591352
0.024425447,0.014560342,0.030146122
0.024445713,0.014560342,0.030130029
0.022074863,0.013339639,0.031366825
0.02322501,0.013339639,0.03051582
0.02290158,0.014560342,0.031366825
0.02322501,0.014560342,0.031082064
0.020783603,0.012118936,0.031649202
0.02037464,0.013339639,0.03258753
0.020783603,0.013339639,0.032310367
0.022004306,0.013339639,0.031415552
0.020783603,0.013896942,0.03258753
0.021248445,0.014560342,0.03258753
0.022004306,0.014560342,0.032019943
0.020783603,0.014560342,0.032918632
0.025666416,0.014560342,0.029127106
0.024445713,0.014610112,0.030146122
0.02322501,0.015193716,0.031366825
0.023579508,0.015781045,0.031366825
0.024445713,0.015781045,0.030663118
0.024250135,0.017001748,0.031366825
0.024445713,0.017001748,0.031204179
0.024445713,0.01747553,0.031366825
0.022004306,0.015772402,0.03258753
0.020382538,0.015781045,0.03380823
0.020783603,0.015781045,0.033520266
0.022004306,0.015781045,0.032591626
0.020783603,0.016426787,0.03380823
0.021123797,0.017001748,0.03380823
0.022004306,0.017001748,0.03315139
0.022009894,0.015781045,0.03258753
0.02322501,0.015781045,0.031639963
0.022703245,0.017001748,0.03258753
0.02322501,0.017001748,0.03216672
0.021752998,0.018222451,0.03380823
0.022004306,0.018222451,0.033607885
0.022004306,0.018843606,0.03380823
0.02322501,0.01812835,0.03258753
0.023266882,0.018222451,0.03258753
0.024445713,0.018222451,0.03163877
0.023786634,0.019443154,0.03258753
0.024445713,0.019443154,0.032061145
0.02322501,0.018222451,0.03261994
0.022243544,0.019443154,0.03380823
0.02322501,0.019443154,0.033004165
0.02509749,0.015781045,0.030146122
0.025666416,0.015781045,0.029649243
0.025666416,0.016976118,0.030146122
0.025683105,0.017001748,0.030146122
0.026887119,0.017001748,0.029296383
0.025666416,0.017001748,0.030156553
0.026440457,0.018222451,0.030146122
0.026887119,0.018222451,0.029729635
0.026845396,0.019443154,0.030146122
0.026887119,0.019443154,0.030099928
0.024791121,0.018222451,0.031366825
0.025666416,0.018222451,0.030614018
0.02524978,0.019443154,0.031366825
0.025666416,0.019443154,0.030997947
0.020783603,0.017001748,0.034068704
0.020254984,0.018222451,0.035028934
0.020783603,0.018222451,0.034589574
0.020783603,0.019387424,0.035028934
0.020806998,0.019443154,0.035028934
0.022004306,0.019443154,0.034001797
0.020783603,0.019443154,0.035048604
5.2288175e-05,0.020663857,0.031366825
0.0011764318,0.020663857,0.03258753
0.0012523532,0.020461649,0.03258753
0.0007520467,0.02188456,0.03258753
0.0012523532,0.020663857,0.032671273
0.0023408085,0.020663857,0.03380823
0.0024730563,0.020310178,0.03380823
0.0012523532,0.02188456,0.03314811
0.0018972754,0.02188456,0.03380823
0.00036737323,0.023105264,0.03258753
0.0012523532,0.023105264,0.03356549
0.0014916658,0.023105264,0.03380823
0.0011309087,0.024325967,0.03380823
0.0012523532,0.023899794,0.03380823
0.000864625,0.02554667,0.03380823
0.0007132292,0.026767373,0.03380823
0.0006901324,0.027988076,0.03380823
0.0008045733,0.02920878,0.03380823
0.0024730563,0.020663857,0.033960447
0.0024730563,0.02188456,0.03444481
0.003546387,0.020663857,0.035028934
0.0036937594,0.020311147,0.035028934
0.0030770004,0.02188456,0.035028934
0.0036937594,0.020663857,0.035177425
0.0048157424,0.020663857,0.036249638
0.0049144626,0.020468429,0.036249638
0.0036937594,0.02188456,0.03563556
0.004313126,0.02188456,0.036249638
0.0024730563,0.023105264,0.034823
0.0012523532,0.024325967,0.033921704
0.0023806691,0.024325967,0.035028934
0.0024730563,0.023929074,0.035028934
0.0024730563,0.024325967,0.035119012
0.0026897192,0.023105264,0.035028934
0.0036937594,0.023105264,0.036013752
0.0039294213,0.023105264,0.036249638
0.0036036074,0.024325967,0.036249638
0.0036937594,0.023946956,0.036249638
0.0049144626,0.020663857,0.036333308
0.0049144626,0.02188456,0.036836073
0.0049144626,0.023105264,0.037317306
0.0036937594,0.024325967,0.03634858
0.004648775,0.024325967,0.03747034
0.0049144626,0.023488,0.03747034
0.0049144626,0.024325967,0.037818357
0.0061351657,0.020663857,0.037467286
0.0061380714,0.020663857,0.03747034
0.005544111,0.02188456,0.03747034
0.0061351657,0.020669594,0.03747034
0.007355869,0.020663857,0.038517
0.0061351657,0.02188456,0.038098797
0.0067189187,0.02188456,0.038691044
0.007355869,0.020969555,0.038691044
0.0075918287,0.020663857,0.038691044
0.008576572,0.019599393,0.038691044
0.0050499886,0.023105264,0.03747034
0.0060690045,0.023105264,0.038691044
0.0061351657,0.022981957,0.038691044
0.0055814385,0.024325967,0.038691044
0.0012523532,0.02554667,0.03416817
0.0021501482,0.02554667,0.035028934
0.0012523532,0.026767373,0.034301907
0.0020171553,0.026767373,0.035028934
0.0024730563,0.02554667,0.035352066
0.0024730563,0.026767373,0.035517022
0.0033290535,0.02554667,0.036249638
0.0031135827,0.026767373,0.036249638
0.0012523532,0.027988076,0.03430742
0.0019917488,0.027988076,0.035028934
0.0012523532,0.02920878,0.03420572
0.002033174,0.02920878,0.035028934
0.0024730563,0.027988076,0.0356109
0.0024730563,0.02920878,0.035663128
0.002964273,0.027988076,0.036249638
0.002852589,0.02920878,0.036249638
0.0036937594,0.02554667,0.036694437
0.0043049306,0.02554667,0.03747034
0.0036937594,0.026767373,0.03705281
0.0039922297,0.026767373,0.03747034
0.0049144626,0.02554667,0.038379014
0.0047279,0.026767373,0.038691044
0.0049144626,0.026160821,0.038691044
0.0036937594,0.027988076,0.037459016
0.003700912,0.027988076,0.03747034
0.003439173,0.02920878,0.03747034
0.0036937594,0.028016016,0.03747034
0.0043539554,0.027988076,0.038691044
0.0036937594,0.02920878,0.038044184
0.0039936453,0.02920878,0.038691044
0.005125463,0.02554667,0.038691044
0.0195629,0.01975593,0.036249638
0.017121494,0.020317182,0.038691044
0.018342197,0.020035997,0.03747034
0.01870951,0.020663857,0.03747034
0.0195629,0.020663857,0.036644295
0.019290432,0.02188456,0.03747034
0.0195629,0.02188456,0.037173137
0.017361626,0.020663857,0.038691044
0.018342197,0.020663857,0.037789673
0.018078744,0.02188456,0.038691044
0.018342197,0.02188456,0.038399056
0.0195629,0.022613004,0.03747034
0.018342197,0.022469133,0.038691044
0.018644542,0.023105264,0.038691044
0.0195629,0.023105264,0.037666142
0.019123018,0.024325967,0.038691044
0.0195629,0.024325967,0.038149983
0.019492716,0.02554667,0.038691044
0.0195629,0.02554667,0.03859672
0.0195629,0.025825322,0.038691044
4.707277e-05,0.031650186,0.03258753
0.0009980649,0.030429482,0.03380823
0.0012203902,0.031650186,0.03380823
0.000390172,0.03287089,0.03258753
0.00072544813,0.03409159,0.03258753
0.0012523532,0.03184405,0.03380823
0.0012523532,0.03287089,0.03359671
0.0014044195,0.03287089,0.03380823
0.0012523532,0.03409159,0.033327222
0.0015389025,0.03409159,0.03380823
8.8721514e-05,0.035312295,0.031366825
0.00032155216,0.036532998,0.031366825
0.0003181249,0.0377537,0.031366825
9.647012e-05,0.038974404,0.031366825
0.0009771287,0.035312295,0.03258753
0.001038447,0.036532998,0.03258753
0.0012523532,0.035312295,0.033072636
0.0016015619,0.035312295,0.03380823
0.0012523532,0.036532998,0.033073753
0.0015293658,0.036532998,0.03380823
0.0008781105,0.0377537,0.03258753
0.0005560219,0.038974404,0.03258753
0.0012523532,0.0377537,0.03372255
0.0012765676,0.0377537,0.03380823
0.0008904785,0.038974404,0.03380823
0.0012523532,0.037836924,0.03380823
0.0012523532,0.030429482,0.034050375
0.0020610392,0.030429482,0.035028934
0.0012523532,0.031650186,0.033842653
0.0020741522,0.031650186,0.035028934
0.0024730563,0.030429482,0.03576736
0.0024730563,0.031650186,0.03595437
0.002726376,0.030429482,0.036249638
0.002595842,0.031650186,0.036249638
0.002071768,0.03287089,0.035028934
0.002046734,0.03409159,0.035028934
0.0024730563,0.03287089,0.036237493
0.002347216,0.03409159,0.036249638
0.0024730563,0.03290695,0.036249638
0.0024769306,0.03287089,0.036249638
0.003195092,0.030429482,0.03747034
0.002974406,0.031650186,0.03747034
0.0036416799,0.030429482,0.038691044
0.0036937594,0.030244559,0.038691044
0.0033270419,0.031650186,0.038691044
0.0024730563,0.03409159,0.03696914
0.0027743578,0.03287089,0.03747034
0.0025562048,0.03409159,0.03747034
0.0030343086,0.03287089,0.038691044
0.0027435124,0.03409159,0.038691044
